# .PCD v0.7 - Point Cloud Data file format
VERSION 0.7
FIELDS x y z rgb
SIZE 4 4 4 4
TYPE F F F U
COUNT 1 1 1 1
WIDTH 1347
HEIGHT 1
VIEWPOINT 0 0 0 1 0 0 0
POINTS 1347
DATA ascii
-2.1724999 42.620499 40.494499 2303811
-2.3775001 43.634499 41.8745 2830151
-2.8355 43.420502 41.6325 2369346
-4.3994999 43.449501 41.842499 2698054
-1.7295001 43.8965 42.216499 3488847
-3.4725001 43.9375 42.772499 9079705
0.097499996 42.554501 40.2085 2040913
-0.40849999 42.338501 39.941502 2763859
0.0255 43.727501 41.662498 1975614
-0.52149999 42.497501 40.1315 2763342
2.1775 42.745499 40.4865 2633553
1.3815 41.787498 39.390499 2964315
0.8175 42.620499 40.331501 2697549
1.8055 43.272499 41.1105 1712448
0.69950002 42.804501 40.525501 2435659
0.55250001 43.901501 41.939499 2238530
-1.0785 43.227501 41.078499 1646913
-0.0845 43.842499 41.8535 2238784
-1.5175 43.712502 41.838501 2831688
-0.60750002 44.193501 42.802502 8358034
-1.1885 44.102501 43.947498 16382456
0.5345 44.276501 43.390499 13949397
-3.2715001 43.580502 45.2645 15987697
-2.3385 44.1035 43.359501 12764100
-2.9045 43.8335 44.505501 16382200
-4.0605001 43.914501 43.9165 15789549
-4.6174998 43.561501 45.063499 15790322
-6.0714998 43.329498 45.7565 15593199
-3.4595001 43.4585 45.6525 15790320
-4.0304999 43.246498 46.7985 15922934
-5.1845002 43.3055 46.209499 15725297
-6.4165001 43.2985 45.781502 15790576
-4.8655 43.4375 45.566502 15461613
-4.0704999 43.508499 45.341499 15592686
-1.8155 43.711498 45.058498 16250871
-2.3055 43.4035 46.241501 16251384
-1.7424999 43.702499 45.095501 16316152
-0.58050001 43.561501 45.684502 16120057
-1.7215 43.719501 45.052502 16316151
-0.0265 43.956501 44.537498 16382199
-0.1495 43.8605 44.7925 16381688
-4.6015 43.039501 47.9445 15396073
-2.8764999 43.202499 47.387501 15462380
-1.1515 43.356499 46.830502 15988725
-3.4345 42.8465 48.5345 15461609
-10.5405 25.7265 48.5765 15921647
-11.6445 25.220501 47.991501 16053488
-12.2455 25.3395 49.134499 15921645
-9.2364998 26.2705 48.761501 16053490
-8.7685003 25.363501 48.022499 16053234
-9.7515001 26.2265 48.9995 16185077
-7.3195 25.147499 48.070499 15790313
-7.5875001 26.4175 48.355499 16119282
-6.2655001 26.540501 48.585499 15921648
-8.1175003 26.369499 48.3955 16053492
-7.7405 26.6905 48.600498 16184819
-9.4545002 26.4125 49.158501 16185077
-8.9385004 26.8895 50.887501 16053491
-7.2515001 27.4625 50.3265 16053234
-8.3594999 27.018499 49.7425 15921905
-12.2795 25.380501 52.011501 16119285
-11.1495 25.9335 49.718498 15921646
-10.0465 26.438499 50.302502 15921905
-10.7015 26.147499 49.955502 15987697
-11.7205 25.7255 50.864498 15856113
-10.7095 26.158501 51.398499 16119285
-10.6155 26.2005 51.448502 16250870
-12.8305 24.9555 53.1595 16382456
-11.7215 25.3985 53.7435 16316151
-13.1345 24.665501 53.802502 16316664
-10.6785 26.1625 51.579498 16119285
-11.1715 25.8305 52.595501 16448249
-10.0675 26.3325 53.1805 16382200
-8.3955002 27.0695 52.6185 16185078
-9.5085001 26.678499 52.033501 16119284
-10.6165 25.883499 54.328499 16447737
-10.3545 26.203501 53.0285 16250872
-10.1985 26.2215 53.454498 16382202
-8.9545002 26.731501 53.765499 16250614
-9.7014999 26.2775 54.811501 16382200
-11.1835 25.633499 55.474499 16447992
-10.1835 26.2435 56.009499 16185334
-6.6424999 27.247499 49.184502 16053234
-5.0784998 26.6525 49.080502 15724010
-4.3635001 27.4655 50.359501 15855855
-6.1234999 27.7045 50.913502 16053490
-7.8264999 27.3015 51.4725 16119284
-5.5165 27.511499 49.7705 15987441
-4.9825001 27.783501 51.5005 16053491
-3.1045001 26.8465 50.851501 15395556
-2.9365001 25.568501 50.760502 15263973
-4.0184999 26.754499 49.822498 15461096
-3.1754999 27.046499 50.9515 15855852
-2.9324999 26.863501 51.068501 15461608
-3.8325 27.7875 52.0895 16118512
-7.8315001 27.0165 54.351501 16316664
-6.6985002 27.539499 52.058498 16184821
-7.2694998 27.3305 53.204498 16250870
-6.7075 27.2915 54.9375 16513528
-9.5105 26.3535 54.912498 16316664
-7.9204998 27.6625 57.2225 16316664
-8.9995003 26.890499 56.640499 16119283
-8.3955002 26.730499 55.497501 16250872
-5.5644999 27.6985 52.6455 16119285
-4.4254999 27.8125 53.233501 16185078
-6.1385002 27.525499 53.7915 16185077
-5.0025001 27.6775 54.378502 16316917
-5.5815001 27.557501 55.523499 16185077
-7.2884998 27.193501 56.0825 16250870
-7.8144999 27.761499 57.280499 16251126
-6.0745001 27.915501 56.731499 16184823
-4.4635 27.8925 56.109501 16382457
-6.1964998 27.8325 56.665501 16316664
-5.1164999 28.584499 57.247501 16053747
-6.8655 28.7015 57.802502 16514040
-6.2614999 27.8985 56.779499 16316664
-11.7625 40.261501 49.956501 16711423
-11.4335 39.0005 50.0765 16579070
-9.8994999 37.8535 50.726501 16514300
-11.1295 39.0285 50.077499 16579581
-9.7045002 39.158501 50.107498 16513529
-10.1435 37.831501 50.691502 16514043
-11.1985 40.313499 49.9725 16579838
-8.2635002 39.289501 50.105499 16579835
-8.3525 40.572498 50.039501 16579833
-8.7535 40.536499 50.060501 16579579
-8.5815001 37.975498 50.9645 16448763
-8.5585003 39.262501 50.1115 16514042
-11.4565 42.5905 44.4175 16251385
-10.8755 42.359501 46.1525 15856370
-12.0075 42.164501 45.565498 15263977
-12.5655 41.821499 46.712502 15527403
-13.1215 41.441502 47.859501 14540766
-12.0025 41.519501 48.4925 15132644
-13.1565 41.4105 47.933498 14672352
-11.4355 42.036499 47.2995 15396588
-10.2995 42.170502 47.886501 14606815
-10.7715 41.635502 48.901501 15067366
-11.6065 41.557499 48.6395 15396074
-11.9815 41.544498 48.447498 15067107
-9.1835003 42.872501 45.592499 16053751
-9.7445002 42.554501 46.739498 15856370
-8.0474997 43.0215 46.179501 16251385
-8.6084995 42.710499 47.3265 15264491
-9.1564999 42.2435 48.474499 14474971
-7.4645 42.760502 47.914501 14804193
-9.5015001 41.753502 49.234501 16053745
-9.8015003 40.441502 50.059502 16645117
-10.8325 41.5425 49.0355 15330537
-8.1064997 41.8815 49.321499 16382714
-9.6645002 41.350498 49.6255 16580605
-13.9275 37.336498 50.181499 16448251
-12.5745 37.606499 50.3255 16447996
-12.7565 37.102501 50.7715 16514045
-12.5655 38.897499 50.070499 16514301
-11.1405 38.455502 50.204498 16645117
-13.2945 36.5275 51.920502 16580092
-14.4115 36.1735 51.335499 16514298
-14.4305 36.154499 51.3745 16579834
-14.0585 36.2015 52.963501 16382457
-14.6425 36.157501 54.108501 16053749
-12.7615 36.814499 53.650501 16251128
-13.8625 36.296501 53.066502 16448250
-14.4505 36.273499 54.211498 16119284
-11.2685 37.727501 50.586498 16514044
-11.6195 37.227501 51.359501 16317434
-8.7825003 37.796501 51.386501 16382971
-9.3575001 37.633499 52.532501 16316922
-9.9315004 37.797501 50.7985 16514299
-10.4815 37.358501 51.946499 16316922
-12.1805 36.9105 52.505501 16448763
-11.0645 37.279499 53.091499 16317178
-11.6555 37.295502 54.2355 16185078
-12.2345 37.171501 55.380501 15922161
-10.5435 37.699501 54.820499 16053493
-12.4925 40.684502 49.598499 16711420
-12.6085 40.184502 49.915501 16711421
-5.3965001 40.8405 49.892502 16580092
-6.0495 39.489498 49.9585 16448250
-5.3134999 39.557499 49.968498 16579837
-6.6545 38.163502 52.490501 16448507
-8.2875004 38.8395 50.234501 16579836
-6.8455 40.709499 49.9105 16514297
-7.0854998 38.2715 50.827499 16514300
-5.4025002 38.883499 50.266499 16382459
-5.9365001 38.258499 51.415501 16382971
-6.2804999 40.760502 49.8895 16514041
-6.7694998 39.4245 50.001499 16579835
-7.3385 38.092499 51.350498 16448508
-4.2305002 38.629501 50.857498 16448250
-2.5465 39.810501 50.189499 16579580
-2.8345001 39.7845 50.170502 16513787
-3.9365001 39.683498 50.093498 16579580
-4.7965002 38.365501 52.003502 16514300
-3.6615 38.518501 52.5905 16448251
-5.3924999 38.433498 53.147499 16382457
-5.7575002 43.114498 47.355499 15396330
-7.4654999 41.939499 49.328499 16448763
-7.9955001 42.1105 49.063499 15461607
-6.3095002 42.702499 48.503502 14606302
-6.6745 42.011501 49.338501 16250870
-5.1364999 42.432499 49.093498 15593195
-6.7865 41.4645 49.657501 16777211
-3.7855 42.274502 49.321499 16185077
-3.9175 41.677502 49.688499 16580094
-3.9714999 40.970501 49.922501 16645629
-5.2525001 42.141499 49.372501 16251129
-4.5914998 42.2015 49.363499 16382457
-2.3794999 42.4035 49.386501 15988211
-3.3525 41.0275 49.952499 16579836
-2.5745001 41.098499 50.005501 16579836
-7.6504998 37.989498 51.974499 16382714
-9.3444996 37.9305 53.996498 16251128
-8.2395 37.977501 53.1185 16382457
-7.9974999 38.047501 53.244499 16316921
-6.5194998 38.188499 52.560501 16383227
-7.1205001 38.308498 53.703499 16316921
-7.7294998 38.517502 54.8465 16185078
-8.3765001 38.0135 53.377499 16382714
-9.9534998 37.695499 53.676498 16316664
-10.0415 37.876499 55.084499 15987698
-9.9715004 37.563499 56.554501 15724782
-8.8225002 37.566502 57.142502 15790833
-8.8424997 38.1255 54.261501 16250871
-9.4285002 38.079498 55.405499 16119283
-9.6514997 37.918499 55.8675 15987955
-8.3065004 38.380501 55.991501 16053491
-6.0054998 38.689499 54.289501 16251384
-5.4685001 38.926498 56.019501 16053749
-4.8825002 38.975498 54.8745 16185335
-8.5915003 38.0205 56.609501 15857139
-6.3414998 36.945499 58.078499 15330283
-5.9004998 38.268501 56.9795 15725297
-6.6085 38.835499 55.432499 16185077
-7.1595001 38.4095 56.579498 15856883
-7.3055 38.140499 56.912498 15791346
-6.3855 38.224499 56.969501 15790577
33.880501 9.0225 -13.2045 4803449
34.275501 7.7674999 -13.0505 4672886
34.001499 9.0415001 -12.1905 4672631
34.039501 9.0495005 -11.6755 4607091
33.446499 10.2735 -13.3785 4869502
33.105499 11.5335 -13.5045 4934772
33.641499 10.3035 -11.8315 4869494
33.217499 11.5555 -12.0005 4738426
34.033501 9.0605001 -10.2315 4475252
33.7005 10.1265 -11.8075 4738935
34.053501 9.0684996 -9.4775 4606578
33.684502 10.3305 -8.9954996 4672626
33.6465 10.3055 -11.7345 4804468
33.655499 10.3175 -10.3775 4672639
33.2215 11.5685 -10.5505 4607092
33.226501 11.5635 -11.1535 4541556
33.2365 11.5815 -9.0965004 4672885
32.900501 12.4415 -10.6825 4476277
32.7705 12.8295 -9.2875004 4542075
34.3475 7.8004999 -9.8125 4738161
33.692501 10.3325 -8.9115 4672114
32.7855 12.8075 -12.1735 4344189
32.1605 14.4235 -12.4305 4935290
32.314499 14.0525 -12.6605 4869748
31.723499 15.3025 -11.1745 4803957
32.2785 14.0625 -10.9385 4541821
32.316502 14.0545 -12.3655 4738934
32.758499 12.8165 -10.7395 4476018
31.668501 15.3085 -9.7554998 4673404
32.753502 12.8185 -10.4665 4541810
32.2435 14.0695 -9.7084999 4738932
31.1005 16.540501 -10.7665 4803707
31.0725 16.5445 -10.0135 4804474
34.4645 7.8214998 -8.6134996 4737393
34.115501 9.0804996 -8.7434998 4737401
34.091499 10.3845 -6.9784999 4737139
34.3825 9.1164999 -7.3084998 4738162
34.7635 7.8614998 -7.0114999 4671861
34.418499 9.1204996 -7.1405001 4671862
34.280499 9.5705004 -7.1935 4803448
33.3255 11.5935 -8.5314999 4672630
33.6385 10.4795 -8.9335003 4737909
32.994499 12.8595 -8.1234999 4672883
34.0215 10.3755 -7.2954998 4803449
33.601501 11.6275 -7.4615002 4738423
33.135502 12.8755 -7.6525002 4672882
33.801498 11.6525 -6.6504998 4869749
34.3055 10.4145 -5.7014999 4737912
33.5145 12.9235 -6.0105 4672624
34.961498 7.8924999 -5.3864999 4738161
34.650501 9.1545 -5.5745001 4606071
33.9245 11.6705 -5.8484998 5001082
34.023499 11.6915 -4.3505001 4869743
33.592499 12.9425 -4.5235 4738679
32.140499 14.3035 -9.5524998 4608121
32.561501 14.1135 -7.8985 4673658
32.247501 14.0715 -9.5074997 4673396
31.7395 15.3215 -8.9624996 4673657
31.3715 16.275499 -8.4245005 4739195
30.4475 17.7815 -9.7294998 4869495
31.2075 16.5695 -8.4975004 4804728
31.2605 16.5755 -8.2655001 4870268
31.901501 15.3425 -8.1894999 4607609
30.869499 17.8405 -7.1754999 4869756
31.9345 16.238501 -6.6915002 4738941
31.7875 16.6385 -6.4815001 4804217
31.7015 16.627501 -6.7965002 4804474
32.753502 13.7185 -7.8154998 4673663
32.634499 14.1215 -7.6595001 4673398
32.997501 14.1665 -6.2275 4739190
32.226501 15.3815 -7.1005001 4672884
33.344501 13.3705 -6.0805001 4738683
33.480499 12.9185 -6.2605 4672374
33.1185 14.1895 -4.7185001 4870524
33.0625 14.1765 -5.6834998 4936053
33.614498 12.9515 -3.7075 4673140
33.2565 14.0035 -3.2084999 4803956
32.383499 15.4005 -6.4945002 4673146
31.2885 17.890499 -5.7445002 4870266
31.8125 17.2325 -3.8234999 4936569
32.009499 16.668501 -5.1904998 4804989
32.585499 15.4315 -4.9895 4935800
32.560501 15.4945 -4.9534998 4936057
32.5895 15.4315 -4.9415002 4935798
32.064499 16.681499 -4.2094998 4870263
34.373501 10.4285 -4.7145 5066357
34.670502 9.1604996 -5.0565 4606323
34.893501 8.6424999 -2.5764999 4737655
34.766499 9.1894999 -2.6205001 4671855
34.683498 9.1695004 -4.1104999 4737652
34.392502 10.4345 -4.2104998 4935026
34.070499 11.5455 -4.3325 5001332
34.098499 11.7105 -2.8655 4672632
34.0275 11.6925 -4.2765002 4869745
30.504499 17.7945 -8.8105001 4804222
30.762501 17.828501 -7.5304999 4935288
29.8265 19.0245 -8.7554998 4935034
30.025499 19.0525 -7.5605001 5001088
29.283501 20.0975 -7.9004998 4869499
29.595501 20.3155 -6.2855 4935036
30.605499 18.2115 -7.2965002 4869501
30.5525 19.1145 -5.8425002 5001342
30.255501 19.0805 -6.7795 5001082
31.1665 18.189501 -5.5634999 4870265
30.7295 19.1385 -4.8905001 5001336
29.8505 20.015499 -6.1665001 4869500
29.936501 20.3605 -4.6634998 4870260
27.866501 22.7015 -5.6335001 4870267
29.1415 21.3265 -5.0335002 4870261
29.6975 20.328501 -5.9264998 4935288
31.3395 17.897499 -5.4864998 4870006
31.459499 17.9205 -3.9775 4936062
30.776501 19.147499 -4.2804999 5001593
33.179501 14.2075 -3.2405 4804208
32.679501 15.4525 -3.4484999 4738939
32.4725 16.1325 -2.0815001 4607101
31.494499 17.935499 -2.5125 4869247
32.177502 16.7085 -2.2105 4672890
32.084499 16.6875 -3.7054999 4804727
32.213501 16.7155 -1.6865 4738681
31.740499 17.692499 -0.95050001 4869241
31.606501 17.960501 -0.73949999 4803705
34.4715 10.4535 -2.7235 4540786
34.573502 10.4755 -1.2235 4672375
34.782501 9.1925001 -2.4625001 4803694
35.283501 7.9625001 -0.38949999 4541044
35.217499 7.9514999 -0.99150002 4540788
34.891499 9.2135 -1.1095001 4738422
33.6385 12.9585 -3.0534999 4607350
33.745499 12.9805 -1.5515 4541550
34.5135 10.4615 -2.1754999 4606578
34.170502 11.7265 -1.7445 4672621
33.962502 12.3905 -1.4635 4738937
34.193501 11.7315 -1.3695 4606572
34.635502 10.4925 0.2545 4672365
34.6465 10.4945 0.37850001 4738160
34.260502 11.7495 0.1115 4672373
34.9715 9.2294998 -0.0185 4607348
34.720501 10.2055 0.28749999 4738163
34.822498 10.5225 1.7975 4606581
35.016499 9.2364998 0.40149999 4672886
35.2425 9.2694998 1.9645 4474990
35.407501 8.7974997 2.0315001 4410487
35.789501 8.0415001 3.6435001 4344180
35.671501 8.0185003 2.1364999 4540271
35.272499 9.2744999 2.2054999 4475505
34.322498 11.7605 0.77350003 4737907
33.932499 13.0205 1.2965 4476017
34.4375 11.7775 1.6485 4737911
34.935501 10.5395 2.6255 4672371
34.616501 11.8055 3.0095 4541038
33.1875 14.2095 -3.1135001 4870002
33.276501 14.2285 -1.7435 4673144
32.747501 15.4665 -2.4914999 4673142
33.766499 12.9855 -1.1925 4476018
33.318501 14.2415 -0.5575 4607602
32.7845 15.4735 -1.9475 4673140
33.3255 14.2445 -0.27149999 4607344
33.164501 14.6775 -0.33750001 4542328
32.8535 15.4925 -0.4655 4607604
33.820499 12.9995 -0.066500001 4541557
33.8545 13.2405 1.4065 4410741
32.864498 15.4975 0.090499997 4476536
33.404499 14.2645 1.2155 4345209
32.3605 16.7495 0.77649999 4869493
32.2855 16.730499 -0.70850003 4803710
32.391499 16.681499 0.79049999 4869493
32.362499 16.7505 0.83350003 4869495
32.899502 15.5085 1.0055 4541818
33.047501 15.5345 2.5285001 4541810
32.4575 16.7705 2.2735 4935041
31.7645 17.995501 1.7635 4869496
34.150501 13.0545 2.9974999 4541303
33.9505 13.0235 1.4475 4475759
33.483501 14.2775 1.9355 4411000
35.468498 9.3125 4.6364999 4475508
35.259499 10.0965 4.8975 4410234
35.391499 9.2954998 3.4885001 4344437
35.113499 10.5735 4.8414998 4475756
34.724499 11.8285 4.6904998 4344184
35.011501 10.5525 3.3415 4672629
34.635502 11.8085 3.1975 4540781
34.2015 13.0645 3.5815001 4541301
34.512501 12.1545 3.1475 4540785
35.133499 10.5775 5.0535002 4475760
33.057499 15.5125 2.5325 4607606
33.574501 14.2925 2.7505 4541819
33.7295 14.2755 4.2744999 4672630
33.710499 14.3165 4.2665 4541551
33.1735 15.5585 4.0395002 4738166
34.2635 13.0775 4.5025001 4607098
34.397499 13.1015 6.0145001 4607351
33.883499 14.3455 5.8024998 4738935
33.712502 14.3175 4.2985001 4672882
33.260502 15.5735 4.9445 4803956
32.558498 16.7875 3.2665 4738165
32.296501 17.3995 3.6615 4672636
32.615501 16.797501 3.8015001 4803702
32.7995 16.8265 5.3435001 4803959
32.156502 18.057501 5.0615001 4607361
32.934502 16.5245 5.4004998 4869496
33.615501 15.6225 7.0644999 4606833
33.560501 15.7955 7.1395001 4672118
33.343498 15.5855 5.5735002 4738423
32.829498 16.8305 5.5475001 4803960
33.0625 16.863501 6.9254999 4869243
33.184502 16.880501 7.6694999 4934521
32.384499 18.0905 6.6255002 4737913
28.9345 21.557501 -5.1304998 4870006
28.994499 21.5655 -4.7915001 4870007
28.1595 22.7925 -3.3994999 5001085
29.115499 21.5865 -3.5905001 4869752
28.4545 22.3925 -3.8975 4804220
29.074499 21.7325 -2.1594999 4803964
29.997499 20.373501 -3.7005 4870009
30.442499 19.665501 -4.4315 4936054
30.7995 19.161501 -2.8215001 4672379
31.0935 18.651501 -2.6905 4737915
31.473499 17.9275 -3.2945001 4869755
30.814501 19.1675 -2.2455001 4672120
30.848499 19.178499 -1.3494999 4606076
29.754499 20.741501 -3.2955 4870011
30.0135 20.379499 -3.1775 4870009
29.1775 21.6035 -2.1125 4672887
29.1695 21.6015 -2.3215001 4803965
31.5865 17.956499 -1.0195 4803703
31.0205 19.119499 0.1825 4803705
30.081499 20.4025 -1.0505 4935294
30.390499 19.893499 -1.5565 4803193
30.9695 19.2015 0.1595 4737653
30.9795 19.203501 0.2475 4672375
30.1455 20.415501 -0.2155 4935297
30.373501 20.4475 1.1935 4803958
30.056499 20.3955 -1.7085 5000574
28.393499 22.731501 -1.0235 4869498
29.2535 21.622499 -0.62550002 4869499
30.2955 20.609501 1.3145 4803964
29.5005 21.657499 0.94749999 4803710
29.6975 21.026501 -0.4215 4935290
29.349501 21.637501 0.14049999 4869496
28.113501 22.782499 -4.0574999 5001083
27.8405 22.745501 -5.5904999 4870013
27.1735 23.835501 -4.4984999 4935551
27.0725 23.977501 -4.3295002 5001344
27.783501 23.283501 -2.7614999 4870010
27.1625 23.9965 -3.0515001 4803964
26.158501 25.2045 -2.0725 4936057
27.261499 24.0145 -1.8825001 4803960
28.1915 22.8025 -2.5704999 5000574
27.1075 24.231501 -1.6245 4935546
28.317499 22.8255 -1.0585001 4803963
27.304501 24.0215 -1.5315 4869754
25.838499 25.5355 -2.2235 4935800
28.3335 22.828501 -0.92549998 4869242
28.519501 22.856501 0.49149999 4803960
28.654499 22.8755 1.2605 4738679
28.8545 22.900499 2.1115 4738427
28.994499 22.265499 0.71249998 4738168
26.359501 25.2355 -0.52249998 4738680
27.581499 24.061501 0.30450001 4870006
26.5165 25.262501 1.0055 4738675
27.550501 24.056499 0.041499998 4935287
26.431499 25.1705 -0.4885 4803960
27.025499 24.7985 1.2474999 4738164
25.147499 26.4135 -1.0445 4804216
26.373501 25.238501 -0.38749999 4804212
25.2995 26.4475 1.4715 4476024
25.1145 26.6805 1.7885 4607091
25.202499 26.429501 0.3775 4541818
25.776501 25.8915 0.6505 4672889
25.3645 26.456499 1.9075 4541814
24.438499 27.619499 2.9245 5001335
24.384501 27.6675 2.8985 4935285
25.7125 26.501499 3.4805 4542066
24.828501 27.7215 4.5745001 4607859
27.727501 24.085501 1.5795 4475510
27.6985 23.8815 0.1115 4935543
26.615499 25.279499 1.9545 4738938
26.679501 25.289499 2.5355 4738675
27.862499 24.105499 2.5685 4606330
29.116501 22.932501 3.1715 4672635
28.2945 23.4755 1.8465 4607095
27.6185 24.4245 2.9835 4738167
28.869499 23.313499 3.5804999 4606587
28.195499 24.1535 4.7145 4738680
27.9645 24.119499 3.1485 4672632
26.974501 25.3295 4.1345 4673144
25.7255 26.5035 3.5404999 4607862
26.9645 25.328501 4.0834999 4673398
26.3645 25.577499 2.3855 4738678
26.254499 26.4485 5.2544999 4607863
26.1455 26.554501 5.2034998 4542067
25.6875 26.5375 3.5225 4607606
26.942499 25.3605 4.1195002 4673145
31.6915 17.9785 0.48249999 4869503
31.102501 19.2255 1.6745 4803965
30.9275 19.804501 3.0534999 4738682
31.171499 19.240499 2.6835001 4804213
31.9415 18.025499 3.5044999 4672638
31.6635 18.202499 1.9225 4869497
31.7785 17.997499 1.9735 4803960
32.0215 18.0375 4.0755 4672634
31.554501 19.0595 4.7925 4672378
31.2185 19.248501 3.1805 4672889
30.3995 20.4515 1.3615 4803702
29.7745 21.692499 2.1235001 4672887
30.637501 20.490499 3.4895 4803954
30.5865 20.480499 2.9045 4738426
29.869499 21.7045 2.5845001 4672373
29.5695 22.098499 2.4465001 4672378
31.4195 19.279499 4.7315001 4738164
30.724501 20.505501 4.4225001 4804217
30.081499 21.7365 4.1405001 4672372
30.091499 21.7395 4.3165002 4737907
29.4785 22.759501 5.3175001 4672629
30.1775 21.557501 4.1834998 4672369
30.8325 20.5175 5.9245 4803700
30.130501 21.740499 7.0584998 4803956
30.115499 21.7635 7.0514998 4738421
29.3255 22.9715 5.5755 4738169
30.116501 21.751499 5.6055002 4738164
31.449499 19.2845 4.9555001 4738164
31.620501 19.310499 6.2814999 4672888
32.169498 18.4445 6.5295 4672379
32.330502 18.0835 6.2845001 4737909
31.744499 19.3295 7.1904998 4803956
31.4475 19.8995 7.6615 4672632
29.223499 22.9475 3.7474999 4606843
29.3265 22.9685 5.2474999 4738426
28.8095 23.6315 6.4545002 4803957
27.5305 25.0515 5.8544998 4606584
35.494499 9.3175001 4.9875002 4541300
35.961498 8.5284996 6.6424999 4606845
35.315498 10.6045 6.3915 4542070
35.704498 9.3494997 6.5425 4541297
36.0975 8.0944996 6.6954999 4540017
34.786499 11.8405 5.4935002 4410483
35.760502 9.3575001 6.8785 4606577
36.311501 8.1265001 8.2524996 4409976
35.463501 10.6245 7.2205 4541554
35.9375 9.3835001 8.1094999 4541303
34.878502 11.8555 6.2164998 4476280
35.0345 12.2215 7.7564998 4541046
34.661499 13.1385 7.6015 4344185
35.1315 11.8895 7.6304998 4410224
35.161499 11.8935 7.8084998 4344174
35.578499 10.6415 7.9734998 4672376
34.7435 13.1505 8.1514997 4343929
36.017502 9.3994999 9.1914997 4541043
36.044498 9.4055004 9.6114998 4475760
33.634499 15.6255 7.1704998 4606578
34.005501 14.3625 6.5405002 4738424
34.151501 14.3825 7.3874998 4607098
34.331501 14.4095 8.7165003 4476275
34.849499 13.1685 9.1444998 4476026
34.212502 14.7695 8.8804998 4541556
34.355499 14.4135 8.9394999 4606575
33.850498 15.6575 8.7285004 4475255
33.2925 16.8965 8.4905005 4869242
23.852501 27.9065 1.1895 5066616
24.1285 27.6315 1.3195 5001593
24.1175 27.6255 0.72750002 4936057
23.1215 28.8405 2.4365001 5066866
23.4035 28.8785 3.8894999 4934496
24.404499 27.6705 2.9814999 5001078
24.893499 27.7295 4.8414998 4542070
27.318501 25.377501 6.2055001 4607095
25.002501 27.5765 4.6574998 4607864
25.175501 27.7665 6.1995001 4934258
27.2535 25.3675 5.7255001 4541560
26.1835 26.5595 5.3715 4673142
26.438499 26.5945 6.8014998 4936315
25.262501 27.7805 6.9324999 4475502
25.574499 27.4345 6.3915 4803184
30.9715 20.5525 7.4435 4607096
31.0965 20.570499 8.2174997 4803701
32.676498 18.1325 8.4215002 4474997
32.6455 18.127501 8.2075005 4409207
31.848499 19.3445 7.8455 4607864
32.066502 19.376499 9.3765001 4541562
32.052502 19.401501 9.3985004 4541816
31.2155 20.5875 9.0155001 4672632
30.731501 21.282499 8.7945004 4672375
30.3575 21.7985 8.6225004 4672376
29.4405 23.0035 8.1645002 4869238
30.1175 21.7635 7.0795002 4738168
29.446501 23.0035 8.2025003 4803697
31.363501 20.613501 10.5095 4672626
30.5655 21.8295 10.1765 4737910
30.0175 22.6455 9.9274998 4672373
30.4585 21.8125 9.2255001 4803698
29.734501 23.043501 9.7985001 4803444
28.408501 24.192499 7.1275001 4869753
28.3265 24.1775 6.2284999 4804216
29.307501 22.9795 6.6845002 4803961
28.4795 24.2045 7.7544999 4803958
28.755501 24.241501 9.2644997 4540531
27.6915 25.4335 8.8444996 4541304
28.129499 24.6145 7.5904999 4738165
27.6255 25.4235 8.4184999 4541303
27.4645 25.3995 7.2804999 4738426
26.842501 26.1315 6.9905 4804470
26.1675 27.0655 8.1265001 4541302
26.6015 26.6215 8.3325005 4672633
26.522499 26.6075 7.5225 4804473
27.935499 25.4685 10.4165 4607350
27.9575 25.4715 10.5845 4607352
27.4405 25.7005 8.7264996 4541562
26.7255 26.6455 9.8424997 4738934
25.4865 27.8195 9.3094997 4343148
25.511499 27.7955 9.2655001 4737386
26.768499 26.6005 9.8625002 4673142
26.9095 26.6745 11.3845 4607861
27.3605 26.251499 11.5985 4672112
26.7325 26.6465 9.9254999 4739191
29.4235 23.0345 8.1925001 4935032
28.717501 24.3055 9.3264999 4474996
29.789499 23.0525 10.2945 4869493
28.7705 24.2435 9.3505001 4474996
29.3155 23.8755 11.0615 4672882
28.0305 25.3715 10.4615 4738425
29.0585 24.2875 11.4845 4672373
29.009501 24.2785 10.9205 4803960
28.634501 24.876499 12.1975 4737907
29.876499 23.068501 11.3185 4737906
30.004499 23.091499 12.6875 4672883
29.935499 23.213499 12.8005 4673143
26.1085 27.3715 11.0005 4278388
25.557501 27.838499 10.7365 4672367
25.9785 27.901501 13.8465 4410228
26.6975 27.0525 12.7365 4673142
29.119499 24.300501 12.4235 4673142
29.254499 24.213499 13.9365 4738419
29.1675 24.3165 13.8955 4738418
28.5735 25.2085 15.0725 4738676
28.116501 25.5065 13.0865 4672630
27.970501 25.686501 13.3355 4607095
28.0875 25.494499 11.9415 4541557
27.009501 26.6905 12.1975 4803957
27.067499 26.7015 12.9115 4870004
28.1215 25.509501 13.4055 4607349
27.247499 26.730499 14.5445 4607347
27.227501 26.7285 14.4415 4541301
26.0345 27.8535 13.8735 4344691
25.998501 27.904499 13.9335 4409970
26.387501 27.952499 15.5045 4541812
28.297501 25.5375 14.9435 4738675
27.2915 26.6605 14.4715 4607607
27.578501 26.7735 16.0695 4738164
26.6035 27.748501 15.6075 4541813
27.195499 27.384501 17.342501 4607094
35.7575 10.4315 9.5035 4606833
35.695499 10.6655 9.5815001 4541292
35.691502 10.6635 9.4794998 4540783
35.316502 11.9205 9.3354998 4672118
36.390499 8.1455002 9.7405005 4476280
36.115501 9.4235001 11.0945 4410227
36.508499 8.1695004 11.2815 4540787
36.141499 9.4315004 11.7615 4475251
36.1745 9.4414997 12.5715 4606582
35.768501 10.6945 12.4125 4409711
35.3265 11.9275 10.0635 4672372
35.7225 10.6785 10.9415 4540279
34.9235 13.1125 10.6265 4475508
34.949501 13.2015 12.0895 4476024
35.324501 11.9325 10.7865 4607087
35.762501 10.6925 12.2625 4475244
36.601501 8.1894999 12.7425 4737661
36.4105 9.0714998 14.1245 4672374
36.2785 9.4624996 14.0715 4541038
35.366501 11.9485 12.2545 4476015
35.8885 10.7175 13.9205 4475511
35.675499 10.9885 12.3755 4541295
35.498501 11.9735 13.7695 4344694
35.399502 11.9555 12.7335 4476019
35.030499 13.2175 13.2165 4476268
36.002499 10.7335 14.6075 4475760
35.702499 12.0015 14.9545 4607087
35.065498 13.2245 13.5955 4541804
34.898499 13.1845 10.6165 4606319
34.476501 14.4365 10.4485 4606839
34.899502 13.1855 10.6595 4541296
34.0065 15.6845 10.2555 4803448
34.078499 15.7025 11.7395 4672623
33.9095 15.6675 9.3024998 4672120
33.441502 16.922501 9.9794998 4803696
32.830502 18.1565 9.7484999 4672639
32.779499 17.893499 8.2665005 4474996
32.897499 18.171499 10.8035 4606579
33.422501 16.9695 10.0065 5000311
33.4445 16.9235 10.0155 4869236
34.078499 15.7035 11.7865 4738418
33.5275 16.942499 11.5055 4737914
33.5425 16.953501 12.5955 4541554
34.5415 14.4545 11.9285 4606835
34.511501 14.4455 11.1785 4541298
34.1035 15.6395 11.7495 4738419
34.822498 13.8785 13.4965 4476279
34.594501 14.4715 13.4025 4541292
34.621498 14.4775 13.7755 4541551
33.356499 17.363501 12.8805 4606838
34.157501 15.7325 14.4435 4738416
34.0825 15.7155 13.1885 4738680
34.033501 16.064501 14.6225 4738423
33.547501 16.956499 12.9625 4607087
35.290501 13.2575 15.1585 4475758
34.734501 14.4965 14.9215 4541306
34.892502 14.5205 16.060499 4541296
34.6735 15.1905 16.362499 4737911
34.182499 15.7365 14.6865 4738159
33.678501 16.9865 15.1415 4672628
33.6175 16.974501 14.4445 4672889
33.272499 17.9485 15.7515 4672118
33.012501 18.209499 14.1825 4869752
33.7785 17.001499 15.9745 4869244
34.4165 15.7705 16.2535 4803952
33.335499 18.2635 17.2425 4737657
36.695499 8.2104998 14.2375 4606323
36.303501 9.4665003 14.2585 4541550
36.203499 10.7595 15.5295 4475506
35.7845 12.0125 15.3635 4607608
36.606499 9.5054998 15.6875 4738678
37.012501 8.2524996 15.9255 4672368
36.7425 9.5225 16.2145 4672880
36.433498 10.7895 16.5795 4540787
36.987499 9.5535002 17.3305 4606832
36.539501 10.8035 17.1495 4606074
35.480499 12.7965 15.2385 4475765
35.566502 13.2955 16.747499 4672116
36.108501 12.0545 16.9765 4606573
36.761501 10.8365 18.710501 4803440
36.362499 12.0905 18.554501 4868978
37.2145 9.5874996 18.894501 4803443
37.127499 9.5745001 18.2735 4671602
36.7845 10.7705 18.7195 4803445
37.4645 9.6225004 20.4305 4869747
37.022499 10.8725 20.2915 4934778
37.1255 10.8865 20.855499 4869233
37.7995 8.3575001 20.0135 4737648
37.2715 10.9085 21.8675 4803191
37.682499 9.6555004 22.029499 4934776
37.440498 9.7095003 20.4615 4737903
37.4715 9.6234999 20.473499 4737388
36.445499 12.1025 19.130501 4803189
36.765499 10.8365 18.7425 4737391
36.620499 12.1265 20.134501 4935024
36.815498 12.1535 21.220501 4934510
36.489498 13.4185 21.563499 4737386
35.336498 13.2635 15.4325 4475504
35.713501 13.3145 17.5105 4606837
34.477501 15.7795 16.633499 4869488
34.9585 14.5295 16.4835 4606838
33.995499 17.032499 17.3375 4737908
35.290501 14.5595 18.1005 4737656
34.682499 15.8075 17.8375 4869242
36.099499 13.3665 19.568501 4803949
35.8745 13.3365 18.352501 4672115
35.892502 14.0805 19.8365 4803704
35.657501 14.6195 19.737499 4803446
35.7285 14.6285 20.053499 4737907
34.856499 15.8305 18.7075 4803698
33.682499 18.3085 18.8685 5000823
33.891499 17.289499 17.4895 4737658
34.383499 17.0835 19.179501 4672627
34.0345 17.0385 17.553499 4737652
34.4165 17.0875 19.327499 4738163
35.081501 16.5075 20.9615 4672374
35.023499 15.8515 19.460501 4738166
34.488499 16.8815 19.2255 4803707
34.7495 17.129499 20.814501 4672627
36.177502 13.3775 19.9555 4803956
35.302502 15.8865 20.6485 4737905
36.015499 14.6655 21.3685 4737913
32.068501 19.376499 9.4055004 4607091
32.191502 19.400499 10.9155 4410234
32.914501 18.1765 11.2395 4541039
31.4265 20.6315 12.0175 4738422
32.218498 19.4105 11.8915 4409720
32.2225 19.414499 12.3785 4343417
32.947498 18.1915 12.7025 4541046
32.685501 18.5905 11.1375 4607353
31.987499 19.776501 12.2715 4475254
32.975498 18.2005 13.4655 4738679
30.6555 21.8505 11.6555 4607088
31.349501 20.6385 10.5325 4672885
31.366501 20.613501 10.5405 4672626
31.4345 20.6415 13.1845 4672627
30.748501 21.870501 13.1645 4540785
30.6485 21.862499 11.6665 4672628
32.311501 19.4405 14.5235 4803702
32.2575 19.429501 13.8435 4540791
31.4375 20.644501 13.4705 4672368
30.0175 23.0935 12.8375 4607600
30.7675 21.8815 14.2485 4409971
31.5175 20.6635 14.9585 4737654
31.296499 20.886499 13.4075 4672369
30.769501 21.884501 14.6225 4344435
31.2215 21.370501 16.2805 4672630
30.050501 23.1175 15.4115 4672887
30.838499 21.9025 16.1045 4541557
30.585501 22.2155 14.5405 4475763
30.0515 23.120501 15.7485 4607094
30.509501 22.7125 17.4135 4673145
32.3955 19.4545 15.3605 4868986
32.630501 18.8605 14.0125 4803705
31.9275 20.099501 15.1465 4803703
33.123501 18.231501 15.6865 4672367
33.149502 18.2365 15.9375 4606578
32.5285 19.6385 16.8825 4803447
31.752501 20.6975 16.525499 4803703
32.600498 19.484501 16.7705 4737908
32.626499 19.488501 16.9265 4803444
31.6035 20.6775 15.6675 4672369
33.4995 18.2855 18.0665 4672372
31.997499 20.7295 17.710501 4869493
32.085499 20.741501 18.144501 4869497
32.920502 19.5285 18.5245 4935027
32.981499 19.536501 18.8395 4935028
31.804501 21.1075 18.0145 4869754
30.928499 21.9165 16.748501 4607094
31.3585 21.9715 18.720501 4606837
31.091499 22.4575 19.147499 4475257
31.127501 21.942499 17.699499 4672636
31.4895 21.988501 19.3335 4541050
30.068501 23.1105 14.3105 4672885
29.175501 24.318501 14.0705 4738674
29.8895 23.3745 15.6755 4607093
29.181499 24.6735 16.8085 4738418
29.245501 24.335501 15.3825 4738163
30.189501 23.1455 17.2665 4738679
29.3505 24.3545 16.540501 4672625
30.268499 23.1565 17.7985 4738419
29.800501 24.022499 18.546499 4540790
29.5385 24.387501 18.4265 4606837
29.380501 24.3605 16.8985 4672627
28.383499 25.5495 15.3785 4672627
28.644501 25.591499 17.6805 4803953
28.571501 25.5755 16.5315 4607092
27.6555 26.7845 16.561501 4738164
27.870501 26.4545 16.206499 4607088
27.7125 26.797501 17.584499 4869236
33.128502 19.193501 18.6185 5000823
33.9445 18.341499 20.012501 4738418
33.290501 19.5755 20.1625 4869495
32.418499 20.7845 19.702499 4737908
38.0285 8.3975 22.379499 4803181
37.726501 9.6645002 22.7295 4803697
36.5215 13.3225 21.5755 4803951
37.269501 11.2465 23.324499 4870000
36.947498 12.1815 23.196501 4869483
36.8815 12.1635 21.7155 4803433
36.494499 13.4195 21.609501 4803436
36.918499 12.1845 23.831499 4606577
34.842499 17.1425 21.3085 4672882
34.053501 18.355499 20.505501 4672629
34.322498 18.3675 22.0905 4541297
35.613499 15.9335 22.8545 4672882
36.536499 13.4345 23.0345 4673397
36.105499 14.6805 22.1315 4738165
35.7145 15.7095 22.7005 4607348
36.1255 14.6875 22.8715 4738417
36.427502 13.4365 24.4245 4672108
36.018501 14.6895 24.2635 4672881
35.406502 15.9005 21.1045 4803704
34.980499 17.1635 22.380501 4607352
35.613499 15.9315 22.657499 4738163
34.9925 17.1595 23.8335 4541041
35.558498 15.9385 24.0765 4541558
35.994499 14.6945 25.1605 4607088
34.2915 18.3715 24.967501 4738929
34.268501 18.411501 24.956499 4804463
34.9375 17.182501 25.252501 4607098
35.515499 15.9455 25.5005 4475499
34.983501 17.175501 23.8295 4541296
34.268501 18.411501 25.005501 4738676
34.406502 18.445499 27.5485 4606575
30.463499 23.1835 18.8545 4607092
31.2465 22.515499 20.0665 4737909
30.664499 23.209499 19.838499 4672628
31.769501 22.025499 20.731501 4672119
31.6765 22.1875 20.8825 4737910
30.786501 23.2255 20.467501 4541042
29.5945 24.3965 18.877501 4541298
29.1035 25.1975 19.681499 4672629
28.487499 25.817499 17.943501 4738673
27.821501 26.6535 19.0805 4738164
27.681499 26.806499 19.015499 4803699
26.5655 27.9925 18.452499 4804213
28.7505 25.616501 19.5165 4738165
28.657499 25.595501 18.022499 4738675
28.796499 25.626499 20.196501 4672628
27.6845 26.8095 19.3165 4869491
27.7215 26.8225 20.4825 4738164
26.5625 28.004499 19.9345 4672884
26.5835 28.0165 21.2295 4476272
28.432501 26.0835 20.818501 4541298
27.164499 27.387501 20.2195 4737905
27.7635 26.838499 21.9505 4606834
27.765499 26.838499 21.973499 4672374
26.5865 28.018499 21.393499 4410483
27.1075 27.6765 23.0935 4672374
26.716499 28.0425 22.907499 4672885
29.7745 24.421499 19.995501 4672881
28.8675 25.6395 21.0235 4541301
30.0445 24.4585 21.5805 4541552
30.3885 23.7005 20.2815 4541300
29.9475 24.445499 21.0005 4476018
30.977501 23.3825 22.0175 4607091
30.2955 24.494499 23.133499 4607093
29.6975 24.813499 21.4165 4475764
30.2845 24.511499 23.1525 4607095
29.056499 25.668501 22.501499 4475764
29.068501 25.6705 22.574499 4475507
29.3265 25.706499 24.1535 4737651
27.775499 26.8265 21.956499 4606837
29.026501 25.706499 22.553499 4475763
28.3575 26.571501 23.6905 4672119
29.3915 25.716499 24.661501 4672369
28.0075 26.873501 23.5235 4672373
28.1325 26.8885 24.067499 4803448
26.841499 28.0585 23.540501 4607349
28.3755 26.9195 25.1595 4606575
28.9375 26.3445 25.425501 4803177
27.6765 27.568501 24.8265 4540782
27.296499 28.116501 25.463499 4409449
27.6145 27.914499 27.7015 8815716
27.369499 28.144501 28.133499 9144419
32.9645 20.665501 21.4835 4803701
33.7145 18.9125 20.3535 4869239
34.308498 18.3915 22.084499 4607088
33.434502 19.5935 20.769501 4738161
34.310501 18.3925 22.109501 4606829
33.592499 19.9025 23.2225 4672117
33.620499 19.6185 21.779499 4475507
33.078499 20.8715 22.9965 4737911
32.3885 20.8465 19.7495 4738167
32.841499 20.8365 21.4275 4803446
32.434502 20.786501 19.7705 4738165
31.814501 22.0315 20.9475 4671863
32.880501 20.841499 21.613501 4672375
32.176498 22.077499 22.5805 4672113
32.199501 22.0805 22.7055 4606577
31.0795 23.265499 22.064501 4606834
31.345501 23.3025 23.6485 4607606
32.253502 21.988501 22.6175 4606577
31.567499 23.0495 23.752501 4672885
32.328499 22.1035 24.105499 4672369
32.2505 22.1075 25.4175 4672624
31.370501 23.3085 24.0875 4607609
34.331501 18.4055 23.5425 4410743
33.720501 19.6395 23.2775 4672365
33.716499 19.637501 23.0305 4606580
33.084499 20.879499 24.0275 4738421
33.6255 19.6425 24.675501 4738421
33.588501 19.6145 26.1015 4869236
32.883499 21.216499 24.355499 4803953
33.0625 20.8815 24.4345 4672874
32.955502 20.8825 25.8255 4737648
31.0485 23.261499 21.901501 4541297
30.439501 24.5205 24.6775 4607352
30.300501 24.495501 23.1595 4607092
29.6105 25.4345 24.2885 4540785
31.3575 23.3155 25.1015 4672888
31.296499 23.3255 27.0425 4672630
33.568501 19.6485 26.092501 4869740
34.301498 18.4265 26.4205 4607349
33.570499 19.6495 26.130501 4869486
32.9445 20.8925 27.115499 4672620
34.220501 18.814501 27.8405 4606320
33.6675 19.6705 27.5895 4868981
32.870499 21.029499 27.234501 4672368
32.2435 22.1075 25.508499 4672622
31.539499 23.012501 26.629499 4672883
32.2075 22.1595 25.4925 4607093
31.3055 23.3335 27.967501 4738420
32.197498 22.1145 26.931499 4672630
32.947498 20.893499 27.268499 4738159
32.247501 22.129499 28.238501 4738168
33.496498 20.283501 28.9725 4802932
33.068501 20.9175 28.7775 4671605
32.259499 22.1325 28.4095 4672120
31.4785 23.3505 29.5035 4540785
32.481499 22.165501 29.9715 4672119
32.168499 22.2535 28.3685 4738167
32.579498 22.1775 30.400499 4606578
32.0485 23.2295 31.2365 4540526
30.428499 24.5275 25.6875 4607093
30.2295 24.779499 26.026501 4606832
29.4725 25.7325 25.675501 4672615
29.556499 25.6975 27.1635 6775659
30.418501 24.529499 26.113501 4672628
31.306499 23.3225 26.522499 4738679
30.8965 23.9345 24.8895 4673140
30.390499 24.539499 27.546499 4474978
28.2645 27.265499 26.5625 4934226
28.518499 26.9405 26.127501 4671065
29.518499 25.748501 27.1465 7038831
30.1985 24.782499 28.9035 6117736
29.5145 25.748501 27.2355 7170160
28.4785 26.953501 28.106501 9144420
28.5525 26.9485 26.6975 5459803
28.452499 26.9585 29.071501 9933918
28.8995 26.438499 28.3015 9604463
29.439501 25.752501 28.5515 8551273
29.511499 25.8475 30.0385 8618082
28.237499 27.223499 29.439501 10262367
30.870501 23.887501 27.7665 4607087
30.3745 24.546499 28.605499 5329254
30.393499 24.5515 28.994499 5788782
29.556499 25.7745 29.9655 8749925
30.6985 24.591499 30.5975 5724274
30.783501 24.5065 30.6385 5461105
23.109501 29.259501 5.1995001 7894628
23.761499 28.581499 4.0605001 4868964
23.4895 28.8915 4.5314999 5460572
23.598499 28.908501 5.4365001 6907238
22.060499 30.0665 6.1395001 11906159
22.0135 30.0495 4.6694999 9932905
21.879499 30.1425 4.6034999 10261611
22.182501 30.0825 6.8455 11972200
22.4695 29.806499 6.3395 11841130
21.2505 30.577499 5.7445002 11774565
21.821501 30.4515 7.4784999 11643486
20.581499 31.2295 6.9194999 11446621
19.9515 31.8815 8.0225 11250527
20.956499 31.276501 8.5135002 11512670
22.3825 30.1085 7.7525001 12037482
24.3395 28.3825 5.7954998 5460330
23.738501 28.932501 6.8585 8946544
25.334499 27.793501 7.7284999 4868972
23.942499 28.9645 8.5065002 9868671
24.9235 28.102501 7.5295 5328743
23.748501 28.9345 6.9604998 9143918
23.695499 28.9725 6.9345002 9209713
23.043501 29.6595 8.0734997 11710321
23.6255 29.3985 9.8074999 10921082
22.613501 30.1385 8.8175001 11644261
25.481501 27.8195 9.2504997 4803691
24.2785 28.7125 8.6695004 8617854
24.866501 28.393499 10.4045 5725811
24.0145 28.9765 9.1315002 10065282
24.1115 28.9925 10.0405 9408130
21.0275 31.286501 8.8634996 11447389
19.869499 32.4505 10.8945 11446363
22.387501 30.3825 9.2115002 11774819
21.1675 31.151501 8.6164999 11512156
20.5215 31.7665 9.7554998 11184731
21.432501 31.3395 10.8865 11446875
21.2745 31.318501 10.1235 11512412
20.435499 32.3815 12.6275 11709533
20.192499 32.531502 12.5095 11316317
20.261499 32.5415 12.9345 11578464
22.702499 30.150499 9.3634996 11906663
22.9685 30.137501 10.9455 11710574
24.2145 29.074499 11.5435 7894910
23.1535 30.217501 12.4895 11250306
22.9125 30.182501 10.9185 11710062
22.3125 30.8605 12.0845 11316076
21.737499 31.0345 10.3505 11315808
22.9265 30.1845 11.0185 11775597
23.2715 30.2335 13.1575 10132600
21.818501 31.3915 12.9445 11578209
21.6595 31.556499 13.2225 11512420
21.595501 31.3615 11.7365 11578463
21.0875 31.699499 11.4895 11578210
20.4695 32.5695 14.0985 11577951
22.8895 30.6745 13.8185 10264691
21.886499 31.400499 13.3335 11512931
19.3895 32.431499 9.2014999 11315549
18.665501 33.0425 10.3015 10657632
19.834499 32.4865 10.9545 11382107
19.810499 32.483501 10.8655 11251292
19.223499 33.063499 12.0335 11316318
24.2645 29.018499 11.4575 7434876
25.4575 28.0495 12.1395 4213103
24.2775 29.0205 11.5735 7368826
24.577499 29.060499 13.1745 4541029
25.644501 27.8545 11.8125 4212850
25.6975 27.863501 12.2555 4279410
24.650499 29.0695 13.5145 4409960
23.5495 29.8985 12.6805 9146237
24.790501 28.884501 13.2765 4212072
24.9795 29.1105 14.8285 4541549
25.123501 29.1285 15.4045 4147314
24.1245 29.727501 14.4145 4869984
23.6415 30.2845 15.2475 4606805
23.4655 30.4865 15.5525 4870484
23.4345 30.255501 14.0815 7304806
23.7265 30.2955 15.6785 4804190
26.4615 27.9615 15.8415 4607602
25.356501 28.8255 15.0105 4213105
25.9305 28.6525 16.7435 4475765
21.005501 32.260502 14.3615 11382117
21.578501 32.1105 16.095501 9080413
20.6565 32.593498 14.9765 11643490
20.7215 32.6175 17.122499 7172688
18.588499 33.5555 13.1735 10921569
18.3475 33.6595 13.0545 11052129
18.4265 33.670502 13.4665 11117664
17.959499 33.983501 14.3145 11052646
17.338499 34.329498 15.4555 10657378
16.3575 34.786499 14.9715 11314788
18.5755 33.693501 14.6185 10920800
16.3295 34.779499 14.5115 11512414
16.3055 34.793499 16.390499 11248743
16.724501 34.5975 16.5975 11052132
16.425501 34.816502 17.8995 11116903
15.5235 35.154499 16.004499 11380831
16.137501 34.886501 14.8625 11117665
16.3535 34.804501 17.2785 10919780
19.161501 33.4105 14.9075 10855012
20.363501 32.823502 15.5005 11314536
19.7945 32.938499 13.7675 10920801
18.588499 33.705502 15.9655 11052136
20.7605 32.609501 15.6955 11381350
18.581499 33.705502 16.068501 11314789
18.5165 33.711498 17.481501 9736798
18.543501 33.726501 16.0495 11051364
17.9275 34.004501 17.1915 10789732
18.686501 33.7355 18.5865 6184523
19.747499 33.115501 16.6425 10066279
19.130501 33.407501 17.7845 7631956
18.8155 33.751499 19.081499 5066571
14.5035 35.948502 19.8515 8223828
13.6545 36.246498 19.428499 9408608
15.4695 35.415501 18.879499 9933672
16.1005 34.9655 17.738501 11248489
16.0275 35.433498 20.612499 5197384
14.8425 35.829498 20.0205 7368785
13.0405 36.512501 20.570499 6580551
14.2205 36.1805 21.161501 4737609
15.4015 35.8335 21.7535 4671073
14.6155 35.963501 20.435499 6973783
14.8795 35.996498 21.4925 5000538
17.2995 34.420502 18.331499 9211479
16.859501 34.869499 19.5695 5658445
16.765499 34.858501 19.2875 7237201
19.188499 33.796501 20.4205 4474988
18.4965 33.893501 18.9245 5395784
19.054501 33.914501 20.657499 4868713
17.8535 34.480499 20.063499 4737609
16.6625 34.9445 19.4715 6908237
17.307501 34.922501 21.0415 4671586
17.217501 34.987499 21.203501 4934761
16.595501 35.337502 22.345501 4606828
14.7835 36.140499 22.894501 4738157
15.0405 36.018501 22.4195 5001584
17.3475 34.927502 21.268499 4934501
17.321501 34.945499 23.827499 4738156
17.1845 35.011501 24.0805 4869230
17.387501 34.943501 22.7355 4803694
24.693501 29.6255 16.147499 4409968
24.036501 30.3365 17.2855 4804212
22.224501 31.4445 14.9545 9541212
22.806499 31.2465 16.6905 4410204
22.4825 31.480499 16.533501 5133133
22.5525 31.4925 17.136499 5133152
22.164499 31.8095 17.8295 4541029
20.953501 32.4935 17.2365 6382157
23.386499 31.022499 18.4245 4737909
22.6665 31.5105 18.0755 4869743
20.7125 32.620499 17.6805 5790020
22.7195 31.526501 19.5485 5066613
22.752501 31.505501 19.5655 5067125
21.5355 32.2365 18.970501 4343403
25.331499 29.1555 16.456499 4804724
25.4175 29.1735 17.6425 4738419
25.2815 29.3085 17.8825 4803957
24.629499 29.987499 19.0215 4935793
24.2045 30.3645 18.818501 4803700
26.622499 27.9865 17.0725 4673140
25.4195 29.1765 17.9485 4738420
26.5495 28.0075 18.481501 4738164
25.453501 29.1985 20.386499 4672113
24.2225 30.373501 19.7395 4540278
25.446501 29.1905 19.4095 4672371
24.2185 30.377501 20.272499 4343924
24.230499 30.390499 21.724501 4803951
23.9855 30.5755 20.1605 4935286
22.122499 31.9475 20.7055 4869998
22.7195 31.5275 19.623501 5133173
20.3325 32.837502 18.377501 5001040
20.758499 32.6325 18.5875 4475480
20.9035 32.709499 20.1105 4409708
20.963499 32.662498 20.002501 4410223
21.4895 32.419498 21.845501 4476268
21.0905 32.6875 21.6525 4410476
24.591499 30.068501 21.897499 4541035
23.349501 31.0835 21.300501 4738674
22.7155 31.5385 20.9935 5133169
21.0665 32.693501 22.615499 4606320
24.255501 30.3985 22.487499 4804461
23.9445 30.692499 23.036501 4672622
22.7145 31.5765 22.4405 4869492
22.748501 31.553499 22.4575 5132656
22.7465 31.5525 22.384501 5198957
22.876499 31.577499 23.970501 4738160
21.0525 32.695499 23.0795 4606318
22.0825 32.039501 23.581499 4869486
21.443501 32.574501 24.7215 4278635
22.651501 31.943501 25.314501 4474986
21.997499 32.641499 26.453501 4539732
19.696501 33.345501 19.5175 4672095
19.254499 33.8055 20.755501 4606574
20.9795 32.665501 20.1485 4476271
20.2665 33.2155 21.2505 4541297
20.862499 32.824501 22.9865 4606574
19.636499 33.657501 22.3915 4672879
19.369499 33.827499 22.261499 4803953
19.3435 33.830502 22.928499 4738932
18.421499 34.392502 21.797501 5000816
17.800501 34.725498 22.938499 4869745
18.3915 34.378502 24.6735 4738670
19.0145 34.015499 23.532499 4738667
20.230499 33.282501 24.127501 4410223
19.3195 33.834499 23.681499 4475755
21.2785 32.732498 25.012501 4213355
21.185499 32.720501 24.5945 4278638
25.894501 28.7155 19.620501 4672627
26.563499 27.9925 18.488501 4738421
25.849501 28.8675 22.495501 4541811
25.452499 29.202499 20.8585 4738163
25.240499 29.4165 20.758499 4672113
25.4895 29.217501 22.324499 4672625
26.509501 28.098499 21.3575 4476019
26.429501 28.647499 24.230499 4607092
25.557501 29.2295 22.9965 4476015
25.7075 29.2505 23.883499 4541809
25.9475 29.2815 25.0485 4279152
25.186501 29.671499 23.633499 4476525
24.2995 30.408501 23.2075 4738156
24.5235 30.4415 24.769501 4542063
25.1045 30.237499 26.505501 4736855
23.8675 31.196501 25.9095 4212831
23.2985 31.3165 24.175501 4804207
23.009501 31.595501 24.6835 4606829
23.216499 31.6215 25.591499 4671590
23.466499 31.6525 26.6035 4672857
24.7995 30.4795 26.3585 4474712
24.8645 30.490499 26.925501 5329496
27.0835 28.0895 24.543501 4541298
25.761499 29.5065 25.3675 4278635
26.0345 29.293501 25.498501 4344171
26.1975 29.320499 27.029499 5987680
26.349501 29.186501 27.102501 6119006
27.001499 28.501499 25.963499 4344675
27.404499 28.1315 26.1555 4672344
27.4025 28.143499 27.6015 7961440
26.196501 29.3235 27.373501 6645599
25.706499 29.7735 28.241501 9341800
38.052502 8.4095001 23.616501 4869494
37.369499 10.9285 23.189501 4869485
37.753502 9.6735001 23.512501 4804211
37.376499 10.9305 23.3675 4868974
37.724499 9.6824999 24.943501 4672370
37.331501 10.9375 24.790501 4737918
37.720501 9.6875 25.557501 4672113
37.929501 9.8004999 27.945499 4606580
37.523499 10.9795 27.783501 4541301
37.753502 9.6975002 26.4055 4606327
36.8755 12.1865 24.605499 4476016
36.422501 13.4365 24.563499 4607087
36.498501 13.2315 24.453501 4672628
36.887501 12.1995 26.0585 4541551
37.238499 11.2525 26.2015 4607091
36.940498 12.2085 26.6035 4541808
36.431499 13.4485 25.873501 4541815
37.336498 10.9485 26.067499 4607089
37.3475 10.9505 26.245501 4475758
37.954498 9.7285004 27.9555 4606575
37.949501 9.7275 27.921499 4606831
36.011501 14.7005 25.706499 4607087
36.5485 13.4695 27.1315 4541548
36.394501 14.0405 27.3235 4475764
35.702499 15.4985 25.578501 4540784
34.994499 17.199499 26.636499 4738669
35.651501 15.9705 27.0175 4606581
35.533501 15.9495 25.8235 4410221
34.948502 17.2995 26.7085 4673140
37.585499 10.9895 28.394501 4672626
37.058498 12.2275 27.5935 4541557
37.079498 12.6625 29.0665 4606835
36.578499 13.4745 27.3955 4606829
38.364498 8.4744997 28.1175 4803701
38.128502 9.7565002 29.4925 4803958
37.797501 11.0285 30.793501 4869743
38.206501 9.7755003 30.9795 4804465
38.176498 9.7674999 30.2925 4869747
37.678501 11.0055 29.3095 4803700
37.206501 12.2515 28.8955 4606830
37.231499 12.2555 29.129499 4606316
37.7995 11.0295 30.818501 4803179
38.5075 9.2565002 32.559502 4541034
38.3535 9.8015003 32.501499 4605798
37.977501 11.0575 32.357498 4803695
37.783501 11.0765 30.8125 4870256
37.420502 12.2905 31.2915 4935535
37.359501 12.2795 30.6415 4870002
37.037498 13.5515 31.8015 4737897
37.539501 12.3085 32.181499 4672367
38.079498 11.0725 33.054501 4606827
37.734501 12.3365 33.489498 4540775
36.202499 14.7335 27.5695 4606828
36.171501 14.7275 27.2355 4540777
36.7565 13.5025 28.9335 4738157
35.7845 15.9945 28.532499 4672362
36.2925 14.7505 28.744499 4803698
35.7635 15.9905 28.1875 4672370
35.8475 16.012501 30.011499 4869493
35.002499 17.2005 26.7325 4672878
